# .PCD v0.7 - Point Cloud Data file format
VERSION 0.7
FIELDS x y z rgb
SIZE 4 4 4 4
TYPE F F F F
COUNT 1 1 1 1
WIDTH 909
HEIGHT 1
VIEWPOINT 0 0 0 1 0 0 0
POINTS 909
DATA ascii
7.002952576 -9.411474228 -3.844007254 2.231602557e-38
7.124592304 -9.311828613 -3.841951609 2.231602557e-38
7.24625206 -9.212431908 -3.840653181 2.231602557e-38
7.366196156 -9.111042023 -3.839182615 2.231602557e-38
7.483471394 -9.006592751 -3.837070942 2.231602557e-38
7.60120821 -8.902903557 -3.835935831 2.231602557e-38
7.716699123 -8.796732903 -3.834398031 2.231602557e-38
7.830694199 -8.689069748 -3.832850456 2.231602557e-38
7.944412708 -8.581216812 -3.831894398 2.231602557e-38
8.056855202 -8.472139359 -3.831036806 2.231602557e-38
8.167825699 -8.361589432 -3.830190659 2.231602557e-38
8.277021408 -8.249341011 -3.829224348 2.231602557e-38
8.384727478 -8.135728836 -3.828282595 2.231602557e-38
8.490850449 -8.020661354 -3.827328682 2.231602557e-38
8.596017838 -7.90478754 -3.82665062 2.231602557e-38
8.69956398 -7.787507534 -3.825956106 2.231602557e-38
8.859745979 -7.719616413 -3.850571394 2.231602557e-38
9.150424957 -7.759714603 -3.931368828 2.222419007e-38
9.341277122 -7.708816528 -3.968635082 2.222419007e-38
9.448975563 -7.587209702 -3.970848083 2.222419007e-38
9.555146217 -7.464142799 -3.973082781 2.222419007e-38
9.657123566 -7.337631702 -3.974253178 2.222419007e-38
9.754699707 -7.207702637 -3.974311113 2.222419007e-38
9.850546837 -7.076494217 -3.974377394 2.222419007e-38
9.944649696 -6.944022179 -3.974451303 2.222419007e-38
10.03698921 -6.810317039 -3.974533319 2.222419007e-38
10.12755394 -6.675395966 -3.97462368 2.222419007e-38
10.21632671 -6.539279461 -3.97472167 2.222419007e-38
10.30308819 -6.401891232 -3.97475338 2.222419007e-38
10.38803482 -6.263337135 -3.974790573 2.222419007e-38
10.47138691 -6.123840332 -3.974935293 2.222419007e-38
10.5528965 -5.983244419 -3.975090027 2.222419007e-38
10.63253975 -5.841579437 -3.975255251 2.222419007e-38
10.71011448 -5.698748589 -3.975352049 2.222419007e-38
10.78539276 -5.554708958 -3.975315809 2.222419007e-38
10.8594141 -5.409993172 -3.975521803 2.222419007e-38
10.93157101 -5.26435709 -3.975762129 2.222419007e-38
11.00171947 -5.117816448 -3.976005554 2.222419007e-38
11.06940937 -4.969931602 -3.976024628 2.222419007e-38
11.13582039 -4.821550369 -3.976318836 2.222419007e-38
11.20039558 -4.672340393 -3.976666451 2.222419007e-38
11.26316166 -4.522375584 -3.977088213 2.222419007e-38
11.38226032 -4.219678879 -3.977767944 2.222419007e-38
11.43904305 -4.067308903 -3.978219748 2.222419007e-38
11.49392509 -3.914179564 -3.978709936 2.222419007e-38
11.54666996 -3.760264158 -3.979166269 2.222419007e-38
11.59722042 -3.605649233 -3.979590416 2.222419007e-38
11.64438343 -3.449924946 -3.979553938 2.222419007e-38
11.68945408 -3.293592453 -3.979520559 2.222419007e-38
11.73243427 -3.136676073 -3.979489326 2.222419007e-38
11.77331734 -2.979195595 -3.979460478 2.222419007e-38
11.81209564 -2.82118392 -3.979434013 2.222419007e-38
11.8487587 -2.66267395 -3.97941041 2.222419007e-38
11.8833046 -2.503686666 -3.979389191 2.222419007e-38
11.91571712 -2.344257355 -3.979370356 2.222419007e-38
11.94600677 -2.184410334 -3.979354143 2.222419007e-38
11.97415733 -2.02416873 -3.979340315 2.222419007e-38
12.00016689 -1.863572359 -3.979329109 2.222419007e-38
12.02402687 -1.702639699 -3.979320526 2.222419007e-38
12.04573917 -1.541407108 -3.979314566 2.222419007e-38
12.06529617 -1.379902363 -3.979310751 2.222419007e-38
12.08269882 -1.218141437 -3.979309559 2.222419007e-38
12.09793949 -1.056160808 -3.979311228 2.222419007e-38
12.11101246 -0.8939923048 -3.979315042 2.222419007e-38
12.12191868 -0.731666863 -3.97932148 2.222419007e-38
12.13066292 -0.5692144632 -3.979330301 2.222419007e-38
12.13723564 -0.4066528082 -3.979341984 2.222419007e-38
12.14163589 -0.2440240383 -3.97935605 2.222419007e-38
12.14386654 -0.08134704083 -3.979372501 2.222419007e-38
12.14392281 0.08135925233 -3.979391336 2.222419007e-38
12.14181137 0.2440368533 -3.979413033 2.222419007e-38
12.13752174 0.4066644311 -3.979437113 2.222419007e-38
12.13303947 0.5693249106 -3.980111361 2.222419007e-38
12.12786674 0.7320349216 -3.981273413 2.222419007e-38
12.12088203 0.8947308064 -3.982557297 2.222419007e-38
12.1117506 1.057378531 -3.983855009 2.222419007e-38
12.10049152 1.21994257 -3.985170126 2.222419007e-38
12.08710957 1.382399321 -3.98650527 2.222419007e-38
12.07162094 1.544727087 -3.987864256 2.222419007e-38
12.05403137 1.706898808 -3.98925066 2.222419007e-38
12.03436089 1.868892193 -3.990669727 2.222419007e-38
12.01263142 2.030689716 -3.99212718 2.222419007e-38
11.98604202 2.191737652 -3.99270916 2.222419007e-38
11.95191097 2.35137558 -3.991437674 2.222419007e-38
11.91629028 2.510648251 -3.990437508 2.222419007e-38
11.88515377 2.670860529 -3.991635084 2.222419007e-38
11.85143661 2.830591917 -3.992689133 2.222419007e-38
11.814991 2.989747286 -3.993546963 2.222419007e-38
11.77540779 3.148165226 -3.994065762 2.222419007e-38
11.73246288 3.305716991 -3.99416399 2.222419007e-38
11.68636894 3.462377787 -3.993905783 2.222419007e-38
11.63817978 3.618386269 -3.993645906 2.222419007e-38
11.58790112 3.773728609 -3.993384361 2.222419007e-38
11.5355444 3.928367853 -3.993120909 2.222419007e-38
11.48112392 4.082278728 -3.992856264 2.222419007e-38
11.42464066 4.235441685 -3.992590189 2.222419007e-38
11.36611271 4.387819767 -3.992322683 2.222419007e-38
11.30555153 4.539390087 -3.992053509 2.222419007e-38
11.24296093 4.690114021 -3.991783142 2.222419007e-38
11.17836189 4.839982986 -3.991511106 2.222419007e-38
11.11176014 4.988955498 -3.991238356 2.222419007e-38
11.04316998 5.137013912 -3.990963936 2.222419007e-38
10.97260189 5.284132004 -3.990688801 2.222419007e-38
10.90007401 5.430276871 -3.990412235 2.222419007e-38
10.82559776 5.575422287 -3.990134716 2.222419007e-38
10.74918652 5.719544411 -3.989856243 2.222419007e-38
10.67085075 5.862624168 -3.989576578 2.222419007e-38
10.59060478 6.004630566 -3.989296198 2.222419007e-38
10.50847626 6.145535946 -3.989015102 2.222419007e-38
10.42446709 6.28531599 -3.988733053 2.222419007e-38
10.33859825 6.423950672 -3.988450289 2.222419007e-38
10.16133499 6.697671413 -3.987882614 2.222419007e-38
10.06998253 6.832706928 -3.987597466 2.222419007e-38
9.976823807 6.966499329 -3.987312555 2.222419007e-38
9.881894112 7.099021435 -3.987026691 2.222419007e-38
9.785202026 7.230249405 -3.986740351 2.222419007e-38
9.686768532 7.360160828 -3.986453772 2.222419007e-38
9.586606979 7.488733292 -3.986166716 2.222419007e-38
9.484739304 7.615939617 -3.985879421 2.222419007e-38
9.381182671 7.7417593 -3.98559165 2.222419007e-38
9.275960922 7.866171837 -3.985304117 2.222419007e-38
9.169085503 7.989153862 -3.985016108 2.222419007e-38
9.060578346 8.110686302 -3.984728336 2.222419007e-38
8.950462341 8.230743408 -3.984440327 2.222419007e-38
8.838756561 8.349308968 -3.984152555 2.222419007e-38
8.725477219 8.466358185 -3.983864307 2.222419007e-38
8.610656738 8.581867218 -3.983576536 2.222419007e-38
8.494303703 8.695822716 -3.983289003 2.222419007e-38
8.376440048 8.808202744 -3.983001709 2.222419007e-38
8.257095337 8.91898632 -3.982714415 2.222419007e-38
8.136287689 9.028149605 -3.982427835 2.222419007e-38
8.014030457 9.135681152 -3.982141256 2.222419007e-38
7.890359879 9.241555214 -3.981855392 2.222419007e-38
7.765035152 9.345458984 -3.981433868 2.222419007e-38
7.636294842 9.445126534 -3.979956627 2.222419007e-38
7.506387711 9.543148041 -3.978510618 2.222419007e-38
7.243031979 9.73412323 -3.975790262 2.222419007e-38
7.110199451 9.8278265 -3.974796772 2.222419007e-38
6.976443768 9.920124054 -3.973965883 2.222419007e-38
6.842351913 10.01186466 -3.973636627 2.222419007e-38
6.70723629 10.10206318 -3.973412991 2.222419007e-38
6.571294785 10.19100189 -3.973409653 2.222419007e-38
6.434175968 10.2781105 -3.973406315 2.222419007e-38
6.295900345 10.36337852 -3.973403215 2.222419007e-38
6.156498909 10.44678402 -3.973400593 2.222419007e-38
6.015993118 10.52831364 -3.973397732 2.222419007e-38
5.874401093 10.60795498 -3.973395348 2.222419007e-38
5.731766224 10.6856966 -3.973392963 2.222419007e-38
5.588098049 10.76151371 -3.973391056 2.222419007e-38
5.443214417 10.83498955 -3.973236084 2.222419007e-38
5.297575951 10.90693665 -3.973236084 2.222419007e-38
5.003471375 11.04494762 -3.973236084 2.222419007e-38
4.855059624 11.11098385 -3.973236084 2.222419007e-38
4.70577383 11.17503166 -3.973236084 2.222419007e-38
4.555643082 11.23706722 -3.973236084 2.222419007e-38
4.404702187 11.29708862 -3.973236084 2.222419007e-38
4.252957821 11.35508251 -3.973236084 2.222419007e-38
4.100462437 11.4110384 -3.973236084 2.222419007e-38
3.947225332 11.46494579 -3.973236084 2.222419007e-38
3.793275118 11.51679802 -3.973236084 2.222419007e-38
3.638651133 11.56658173 -3.973236084 2.222419007e-38
3.483366728 11.61429214 -3.973236084 2.222419007e-38
3.327463388 11.65991306 -3.973236084 2.222419007e-38
3.170960665 11.70344448 -3.973236084 2.222419007e-38
3.013890266 11.74487305 -3.973236084 2.222419007e-38
2.856279135 11.78419399 -3.973236084 2.222419007e-38
2.698154211 11.8214035 -3.973236084 2.222419007e-38
2.539545774 11.85648823 -3.973236084 2.222419007e-38
2.380479574 11.8894453 -3.973236084 2.222419007e-38
2.220987558 11.92026711 -3.973236084 2.222419007e-38
2.061097383 11.94895267 -3.973236084 2.222419007e-38
1.900847077 11.97549057 -3.973236084 2.222419007e-38
1.740242839 11.99987984 -3.973236084 2.222419007e-38
1.57933104 12.02211666 -3.973236084 2.222419007e-38
1.418129802 12.04219437 -3.973236084 2.222419007e-38
1.256679654 12.06011295 -3.973236084 2.222419007e-38
1.095000029 12.07586479 -3.973236084 2.222419007e-38
0.9331262112 12.08945179 -3.973236084 2.222419007e-38
0.7710863948 12.10086918 -3.973236084 2.222419007e-38
0.6089013815 12.11011219 -3.973236084 2.222419007e-38
0.4466186464 12.11718273 -3.973236084 2.222419007e-38
0.2842468321 12.12207699 -3.973236084 2.222419007e-38
0.1218322739 12.12479687 -3.973236084 2.222419007e-38
-0.04061645269 12.12534142 -3.973236084 2.222419007e-38
-0.2030566335 12.12371063 -3.973236084 2.222419007e-38
-0.3654443324 12.11990166 -3.973236084 2.222419007e-38
-0.5277770758 12.11391926 -3.973236084 2.222419007e-38
-0.6900122166 12.10576153 -3.973236084 2.222419007e-38
-0.8521264195 12.09543228 -3.973236084 2.222419007e-38
-1.014094234 12.08292961 -3.973236084 2.222419007e-38
-1.175873995 12.06825924 -3.973236084 2.222419007e-38
-1.337443829 12.05142307 -3.973236084 2.222419007e-38
-1.498769522 12.03242493 -3.973236084 2.222419007e-38
-1.659826636 12.01126766 -3.973236084 2.222419007e-38
-1.820584655 11.98795414 -3.973236084 2.222419007e-38
-1.981018066 11.96248722 -3.973236084 2.222419007e-38
-2.141097307 11.93487549 -3.973236084 2.222419007e-38
-2.30078721 11.9051218 -3.973236084 2.222419007e-38
-2.460075617 11.87322998 -3.973236084 2.222419007e-38
-2.777277708 11.80306149 -3.973236084 2.222419007e-38
-2.935152531 11.76479721 -3.973236084 2.222419007e-38
-3.092498779 11.72441959 -3.973236084 2.222419007e-38
-3.249293089 11.68193817 -3.973236084 2.222419007e-38
-3.40549922 11.63736343 -3.973236084 2.222419007e-38
-3.561091185 11.59069538 -3.973236084 2.222419007e-38
-3.716050863 11.54194832 -3.973236084 2.222419007e-38
-3.870337963 11.49112988 -3.973236084 2.222419007e-38
-4.023939133 11.43824768 -3.973236084 2.222419007e-38
-4.176805496 11.38330746 -3.973236084 2.222419007e-38
-4.328929424 11.32633972 -3.973236084 2.222419007e-38
-4.480278015 11.26732731 -3.973236084 2.222419007e-38
-4.630813122 11.20629978 -3.973236084 2.222419007e-38
-4.78053093 11.14325619 -3.973236084 2.222419007e-38
-4.929380894 11.07821274 -3.973236084 2.222419007e-38
-5.077345848 11.01118183 -3.973236084 2.222419007e-38
-5.224404335 10.94217491 -3.973236084 2.222419007e-38
-5.370520115 10.87120438 -3.973236084 2.222419007e-38
-5.515675068 10.79828262 -3.973236084 2.222419007e-38
-5.659838676 10.72342396 -3.973236084 2.222419007e-38
-5.802988052 10.64663696 -3.973236084 2.222419007e-38
-5.945096493 10.56794167 -3.973236084 2.222419007e-38
-6.086136341 10.48735046 -3.973236084 2.222419007e-38
-6.226081371 10.4048748 -3.973236084 2.222419007e-38
-6.364915848 10.32053566 -3.973236084 2.222419007e-38
-6.502608299 10.23434067 -3.973236084 2.222419007e-38
-6.639125824 10.14630985 -3.973236084 2.222419007e-38
-6.772356033 10.05334187 -3.972005129 2.222419007e-38
-6.901677132 9.954855919 -3.969271183 2.222419007e-38
-7.029566288 9.854704857 -3.966534853 2.222419007e-38
-6.897933006 9.401168823 -3.820836067 2.231602557e-38
-7.023246765 9.307902336 -3.820836067 2.231602557e-38
-7.14730835 9.212982178 -3.820836067 2.231602557e-38
-7.270092487 9.116404533 -3.820836067 2.231602557e-38
-7.39156723 9.018194199 -3.820836067 2.231602557e-38
-7.511719704 8.918361664 -3.820836067 2.231602557e-38
-7.630521297 8.816930771 -3.820836067 2.231602557e-38
-7.747956276 8.71391201 -3.820836067 2.231602557e-38
-7.863992691 8.609336853 -3.820836067 2.231602557e-38
-7.978621483 8.503216743 -3.820836067 2.231602557e-38
-8.091824532 8.395561218 -3.820836067 2.231602557e-38
-8.203566551 8.286409378 -3.820836067 2.231602557e-38
-8.313843727 8.175761223 -3.820836067 2.231602557e-38
-8.42261982 8.063651085 -3.820834637 2.231602557e-38
-8.529829025 7.950041771 -3.820809126 2.231602557e-38
-8.635515213 7.835002422 -3.820783615 2.231602557e-38
-8.739643097 7.718564987 -3.820758343 2.231602557e-38
-8.84220314 7.600736618 -3.820732832 2.231602557e-38
-8.943173409 7.481550694 -3.82070756 2.231602557e-38
-9.042538643 7.361027718 -3.820682287 2.231602557e-38
-9.140280724 7.239171982 -3.820657253 2.231602557e-38
-9.236380577 7.1160326 -3.820631981 2.231602557e-38
-9.330821037 6.99160862 -3.820606947 2.231602557e-38
-9.423583984 6.865938663 -3.820581675 2.231602557e-38
-9.51465416 6.739034176 -3.820556641 2.231602557e-38
-9.604021072 6.610918045 -3.820531607 2.231602557e-38
-9.691658974 6.481623173 -3.820506811 2.231602557e-38
-9.77755928 6.351164341 -3.820481777 2.231602557e-38
-9.861698151 6.219567776 -3.820456982 2.231602557e-38
-3.797496319 2.324481249 -1.45896697 2.295887404e-38
-3.800886154 2.257121563 -1.448521137 2.295887404e-38
-3.823284864 2.201685667 -1.44568634 2.295887404e-38
-3.881479502 2.166476488 -1.45658493 2.295887404e-38
-10.25555801 5.545349121 -3.820334435 2.231602557e-38
-10.328866 5.407427788 -3.820310354 2.231602557e-38
-10.40030861 5.268537521 -3.820286274 2.231602557e-38
-10.46988392 5.128705978 -3.820261955 2.231602557e-38
-10.53759384 4.98795414 -3.820238352 2.231602557e-38
-10.60339928 4.846312046 -3.82021451 2.231602557e-38
-10.72930241 4.560441971 -3.820167065 2.231602557e-38
-10.78936386 4.416273117 -3.820143938 2.231602557e-38
-10.84749222 4.271309853 -3.820120573 2.231602557e-38
-10.90367317 4.125584602 -3.820097208 2.231602557e-38
-10.95789909 3.979117393 -3.82007432 2.231602557e-38
-11.01015568 3.831935883 -3.820051432 2.231602557e-38
-11.06043816 3.684069633 -3.82002902 2.231602557e-38
-11.10873413 3.535549164 -3.820006371 2.231602557e-38
-11.15503502 3.386395216 -3.819983959 2.231602557e-38
-11.19933414 3.236629486 -3.819961786 2.231602557e-38
-11.24162292 3.086286545 -3.819939852 2.231602557e-38
-11.28189754 2.93538928 -3.819917917 2.231602557e-38
-11.32014751 2.783970833 -3.819896221 2.231602557e-38
-11.3563633 2.632058144 -3.819874525 2.231602557e-38
-11.39054012 2.479667902 -3.819853067 2.231602557e-38
-11.42267418 2.326839447 -3.819832087 2.231602557e-38
-2.968664408 0.5634155273 -0.9901320934 2.314254503e-38
-2.954383373 0.5198022127 -0.9829577208 2.314254503e-38
-2.958039999 0.4796850383 -0.9819485545 2.314254503e-38
-2.979470253 0.4422808886 -0.9870055914 2.314254503e-38
-3.040073872 0.4097314477 -1.005173564 2.314254503e-38
-11.57225227 1.402099609 -3.819709301 2.231602557e-38
-11.58993626 1.246940851 -3.819689512 2.231602557e-38
-11.60554314 1.091560006 -3.819669962 2.231602557e-38
-9.19771862 0.7409203649 -3.023655891 2.249969656e-38
-9.134016991 0.6127514243 -2.999746561 2.249969656e-38
-9.13032341 0.4897350967 -2.996109962 2.249969656e-38
-9.209012032 0.3703088164 -3.020032167 2.249969656e-38
-11.6522913 0.3122802675 -3.819575787 2.231602557e-38
-11.65537453 0.1561584473 -3.819557667 2.231602557e-38
-11.36838436 4.882812391e-06 -3.819573164 2.231602557e-38
-11.36731529 -0.1522998065 -3.819555998 2.231602557e-38
-11.36419868 -0.3045654297 -3.81953907 2.231602557e-38
-11.35904884 -0.4567687809 -3.819522381 2.231602557e-38
-11.35186577 -0.6089001298 -3.81950593 2.231602557e-38
-11.34263992 -0.7609240413 -3.819489241 2.231602557e-38
-11.33137798 -0.9128088355 -3.819473505 2.231602557e-38
-11.31808949 -1.064521432 -3.819457531 2.231602557e-38
-11.30276489 -1.216052175 -3.819442272 2.231602557e-38
-11.28541374 -1.367352247 -3.819427013 2.231602557e-38
-11.26604366 -1.518409371 -3.819412231 2.231602557e-38
-11.24464798 -1.669193029 -3.819397449 2.231602557e-38
-11.2212286 -1.819675207 -3.819382906 2.231602557e-38
-11.19580936 -1.969824195 -3.819368839 2.231602557e-38
-11.16837502 -2.119627714 -3.819354773 2.231602557e-38
-11.1389389 -2.269042969 -3.819341421 2.231602557e-38
-11.10750103 -2.418054104 -3.819327831 2.231602557e-38
-11.07406998 -2.566633224 -3.819314718 2.231602557e-38
-11.03864861 -2.714749813 -3.819301367 2.231602557e-38
-11.00124931 -2.862372875 -3.8192873 2.231602557e-38
-10.96187592 -3.009484768 -3.81927371 2.231602557e-38
-10.9205389 -3.156057119 -3.819259882 2.231602557e-38
-10.87724113 -3.302062988 -3.819246769 2.231602557e-38
-10.83199215 -3.447470665 -3.819233894 2.231602557e-38
-10.78480053 -3.592261791 -3.81922102 2.231602557e-38
-10.68486881 -3.879977942 -3.819284916 2.231602557e-38
-10.63210106 -4.022833347 -3.819344997 2.231602557e-38
-10.57742023 -4.164969444 -3.819406033 2.231602557e-38
-10.52084732 -4.306364536 -3.819467306 2.231602557e-38
-10.46311474 -4.447348595 -3.81976366 2.231602557e-38
-10.40606022 -4.588602066 -3.821069956 2.231602557e-38
-10.34697342 -4.729115963 -3.822295666 2.231602557e-38
-10.28264999 -4.867285252 -3.822280884 2.231602557e-38
-10.21648312 -5.004577637 -3.82226634 2.231602557e-38
-10.14849186 -5.140980244 -3.822252512 2.231602557e-38
-10.07867432 -5.276456356 -3.822238922 2.231602557e-38
-10.00704288 -5.410978794 -3.822226286 2.231602557e-38
-9.933628082 -5.54453373 -3.82221365 2.231602557e-38
-9.858429909 -5.677098274 -3.82220149 2.231602557e-38
-9.784388542 -5.810378075 -3.823334455 2.231602557e-38
-9.710113525 -5.943655968 -3.825084448 2.231602557e-38
-9.63722229 -6.077999115 -3.828101635 2.231602557e-38
-9.560892105 -6.210427284 -3.830490589 2.231602557e-38
-9.481579781 -6.341131687 -3.832411051 2.231602557e-38
-9.399706841 -6.47028923 -3.834012985 2.231602557e-38
-9.31951046 -6.600821495 -3.837029696 2.231602557e-38
-9.238226891 -6.730888367 -3.840346575 2.231602557e-38
-9.154170036 -6.859240532 -3.843281984 2.231602557e-38
-9.064188004 -6.983370304 -3.844418287 2.231602557e-38
-8.974920273 -7.108213902 -3.846611738 2.231602557e-38
-8.881185532 -7.229680061 -3.847599983 2.231602557e-38
-8.684308052 -7.465020657 -3.847599983 2.231602557e-38
-8.583525658 -7.580686092 -3.847599983 2.231602557e-38
-8.481197357 -7.695001125 -3.847599983 2.231602557e-38
-8.377351761 -7.807928085 -3.847599983 2.231602557e-38
-8.272000313 -7.919455528 -3.847599983 2.231602557e-38
-8.165158272 -8.029560089 -3.847599983 2.231602557e-38
-8.056867599 -8.138226509 -3.847599983 2.231602557e-38
-7.947113037 -8.245428085 -3.847599983 2.231602557e-38
-7.835944653 -8.351153374 -3.847599983 2.231602557e-38
-7.723359108 -8.455382347 -3.847599983 2.231602557e-38
-7.60939455 -8.558089256 -3.847599983 2.231602557e-38
-7.494060993 -8.659255981 -3.847599983 2.231602557e-38
-7.658116341 -9.092178345 -3.994014263 2.231602557e-38
-7.540723801 -9.200177193 -3.996716261 2.231602557e-38
-7.421812534 -9.306661606 -3.999418497 2.231602557e-38
-7.297533989 -9.406622887 -4 2.231602557e-38
-7.170860291 -9.503538132 -4 2.231602557e-38
-7.042899132 -9.598748207 -4 2.231602557e-38
-6.913677692 -9.692238808 -4 2.231602557e-38
-6.783214092 -9.783988953 -4 2.231602557e-38
-6.651535511 -9.873986244 -4 2.231602557e-38
-6.518657207 -9.962209702 -4 2.231602557e-38
-6.384613037 -10.04863834 -4 2.231602557e-38
-6.249424934 -10.13326645 -4 2.231602557e-38
-6.113111496 -10.21608162 -4 2.231602557e-38
-5.975700378 -10.2970562 -4 2.231602557e-38
-5.837215424 -10.37619019 -4 2.231602557e-38
-5.697690487 -10.45345783 -4 2.231602557e-38
-5.557139874 -10.52884483 -4 2.231602557e-38
-5.415593147 -10.60234451 -4 2.231602557e-38
-5.273068905 -10.67394543 -4 2.231602557e-38
-5.129601955 -10.7436285 -4 2.231602557e-38
-4.98521471 -10.8113842 -4 2.231602557e-38
-4.839930534 -10.87719917 -4 2.231602557e-38
-4.693778992 -10.94105816 -4 2.231602557e-38
-4.546788216 -11.00296211 -4 2.231602557e-38
-4.398975849 -11.06288815 -4 2.231602557e-38
-4.250376701 -11.12082577 -4 2.231602557e-38
-4.101024628 -11.17675781 -4 2.231602557e-38
-3.95092392 -11.23069572 -4 2.231602557e-38
-3.800116539 -11.28261662 -4 2.231602557e-38
-3.648624182 -11.33251667 -4 2.231602557e-38
-3.496482372 -11.38037586 -4 2.231602557e-38
-3.343705416 -11.42620659 -4 2.231602557e-38
-3.036386013 -11.51167679 -4 2.231602557e-38
-2.881898642 -11.55131817 -4 2.231602557e-38
-2.726888895 -11.58889103 -4 2.231602557e-38
-2.571389198 -11.62438965 -4 2.231602557e-38
-2.415435791 -11.65779781 -4 2.231602557e-38
-2.259036303 -11.68910408 -4 2.231602557e-38
-2.102245331 -11.71832085 -4 2.231602557e-38
-1.945075035 -11.7454319 -4 2.231602557e-38
-1.78754878 -11.77043152 -4 2.231602557e-38
-1.629708767 -11.79332256 -4 2.231602557e-38
-1.471573472 -11.8140974 -4 2.231602557e-38
-1.313168287 -11.83275223 -4 2.231602557e-38
-1.154530048 -11.84928226 -4 2.231602557e-38
-0.9956908822 -11.86368275 -4 2.231602557e-38
-0.8366674781 -11.87595844 -4 2.231602557e-38
-0.6774889827 -11.88609982 -4 2.231602557e-38
-0.5181945562 -11.89411068 -4 2.231602557e-38
-0.3588110209 -11.89998531 -4 2.231602557e-38
-0.1993676722 -11.90372276 -4 2.231602557e-38
-0.03987792879 -11.90532684 -4 2.231602557e-38
0.1196264625 -11.90479946 -4 2.231602557e-38
0.2790942192 -11.90212154 -4 2.231602557e-38
0.4385156035 -11.89731503 -4 2.231602557e-38
0.5978246927 -11.89040756 -4 2.231602557e-38
0.7570946813 -11.8812933 -4 2.231602557e-38
0.9161999226 -11.87008762 -4 2.231602557e-38
1.233883023 -11.84128189 -4 2.231602557e-38
1.392315626 -11.82296467 -3.999754667 2.231602557e-38
1.549952388 -11.79848862 -3.998140574 2.231602557e-38
1.707199693 -11.77199459 -3.996554852 2.231602557e-38
1.463994145 -9.223297119 -3.137657404 2.249969656e-38
1.565666437 -9.076731682 -3.094655037 2.249969656e-38
1.676204801 -8.996364594 -3.074635506 2.249969656e-38
1.789907217 -8.939787865 -3.063220501 2.249969656e-38
1.901915193 -8.879560471 -3.051040649 2.249969656e-38
1.846425772 -8.089717865 -2.787899017 2.259153205e-38
1.90947938 -7.87797451 -2.723499298 2.259153205e-38
1.966292739 -7.662484646 -2.65787077 2.268336755e-38
2.02515316 -7.47446537 -2.601830959 2.268336755e-38
2.113664389 -7.406569481 -2.587822914 2.268336755e-38
2.201094389 -7.338908672 -2.574254036 2.268336755e-38
2.287419319 -7.271265507 -2.561047316 2.268336755e-38
2.372380257 -7.202800274 -2.547899246 2.268336755e-38
2.45598197 -7.133538246 -2.534811735 2.268336755e-38
2.550878763 -7.098752499 -2.534366131 2.268336755e-38
2.646197557 -7.065142632 -2.534797668 2.268336755e-38
2.741111279 -7.030346394 -2.535262346 2.268336755e-38
2.835642576 -6.994461536 -2.535793304 2.268336755e-38
2.929725885 -6.957348347 -2.536341667 2.268336755e-38
3.029910326 -6.934060097 -2.542422771 2.268336755e-38
3.247252226 -6.920004845 -2.568255901 2.268336755e-38
3.356802225 -6.911168098 -2.581435442 2.268336755e-38
3.466933012 -6.901100159 -2.594791889 2.268336755e-38
3.610374689 -6.95283556 -2.632194757 2.268336755e-38
3.758557081 -7.007055283 -2.671545267 2.268336755e-38
5.547839165 -10.01824284 -3.847599983 2.231602557e-38
5.681549072 -9.943024635 -3.847599983 2.231602557e-38
5.814245701 -9.866018295 -3.847599983 2.231602557e-38
5.945897102 -9.787238121 -3.847599983 2.231602557e-38
6.076477051 -9.706706047 -3.847599983 2.231602557e-38
6.205964088 -9.624432564 -3.847599983 2.231602557e-38
6.334117413 -9.5400877 -3.8474617 2.231602557e-38
6.460851669 -9.453641891 -3.847163916 2.231602557e-38
6.58539772 -9.364074707 -3.846274137 2.231602557e-38
6.709322453 -9.273730278 -3.84574151 2.231602557e-38
6.831493855 -9.181044579 -3.844917297 2.231602557e-38
6.950998306 -9.08494091 -3.84332633 2.231602557e-38
7.068887711 -8.986950874 -3.84159112 2.231602557e-38
7.18667078 -8.888989449 -3.840533733 2.231602557e-38
7.302779198 -8.789120674 -3.839310169 2.231602557e-38
7.416059494 -8.686035156 -3.837338686 2.231602557e-38
7.529604435 -8.583450317 -3.836241722 2.231602557e-38
7.64175415 -8.479402542 -3.83515501 2.231602557e-38
7.751420498 -8.37277317 -3.833551168 2.231602557e-38
7.8609128 -8.266096115 -3.832587004 2.231602557e-38
7.96911478 -8.158171654 -3.831708193 2.231602557e-38
8.075979233 -8.048971176 -3.830893517 2.231602557e-38
8.181363106 -7.93837738 -3.830089569 2.231602557e-38
8.295805931 -7.836406231 -3.834164858 2.231602557e-38
8.387457848 -7.713004112 -3.828425884 2.231602557e-38
8.59135437 -7.690644264 -3.874114037 2.231602557e-38
8.838719368 -7.701296806 -3.938780069 2.231602557e-38
9.012524605 -7.642771244 -3.970244408 2.231602557e-38
9.118268013 -7.524782658 -3.972057819 2.231602557e-38
9.222652435 -7.405479431 -3.973952055 2.231602557e-38
9.324445724 -7.283923626 -3.975406647 2.231602557e-38
9.421307564 -7.15844202 -3.975455761 2.231602557e-38
9.516498566 -7.03169775 -3.975515604 2.231602557e-38
9.610012054 -6.903706074 -3.975585222 2.231602557e-38
9.701867104 -6.77444315 -3.975665092 2.231602557e-38
9.79186058 -6.644043922 -3.975735664 2.231602557e-38
9.879972458 -6.512214661 -3.975718498 2.231602557e-38
9.966639519 -6.379458904 -3.975840569 2.231602557e-38
10.05154991 -6.245585918 -3.975975275 2.231602557e-38
10.13467884 -6.110602856 -3.976122618 2.231602557e-38
10.21605682 -5.974514008 -3.976282597 2.231602557e-38
10.29550838 -5.837355614 -3.976423979 2.231602557e-38
10.37288284 -5.698924541 -3.976452351 2.231602557e-38
10.44891548 -5.55977869 -3.976686239 2.231602557e-38
10.52312374 -5.41963625 -3.976935863 2.231602557e-38
10.59548664 -5.27852726 -3.977200508 2.231602557e-38
10.6661396 -5.136578083 -3.977541208 2.231602557e-38
10.8017025 -4.849737644 -3.978187799 2.231602557e-38
10.86632538 -4.704888344 -3.978418112 2.231602557e-38
10.9296627 -4.559390545 -3.978877544 2.231602557e-38
10.99081516 -4.413006306 -3.979263783 2.231602557e-38
11.05015087 -4.265753746 -3.979675531 2.231602557e-38
11.10752201 -4.117724419 -3.980096102 2.231602557e-38
11.16146374 -3.968617439 -3.980051279 2.231602557e-38
11.21351051 -3.818693876 -3.980008841 2.231602557e-38
11.26354694 -3.668092489 -3.979968786 2.231602557e-38
11.31156921 -3.51683712 -3.979930878 2.231602557e-38
11.35756302 -3.36494875 -3.979895592 2.231602557e-38
11.40153408 -3.212468863 -3.97986269 2.231602557e-38
11.4434576 -3.059418201 -3.979832172 2.231602557e-38
11.4833374 -2.905818939 -3.979804277 2.231602557e-38
11.52115822 -2.751697063 -3.979778767 2.231602557e-38
11.55692196 -2.597089291 -3.979755402 2.231602557e-38
11.59061623 -2.442022562 -3.979734659 2.231602557e-38
11.62223721 -2.28652072 -3.979716301 2.231602557e-38
11.65177917 -2.130609274 -3.979700565 2.231602557e-38
11.67923832 -1.974317551 -3.979687214 2.231602557e-38
11.70460701 -1.817672729 -3.979676008 2.231602557e-38
11.72788048 -1.660707355 -3.979667902 2.231602557e-38
11.74905968 -1.503443241 -3.979661703 2.231602557e-38
11.76813412 -1.345916986 -3.979658127 2.231602557e-38
11.78510761 -1.188138962 -3.979657173 2.231602557e-38
11.79997063 -1.030146718 -3.979658365 2.231602557e-38
11.81272221 -0.8719738722 -3.979662418 2.231602557e-38
11.8233614 -0.7136492729 -3.979668379 2.231602557e-38
11.83189201 -0.5551897883 -3.979677439 2.231602557e-38
11.83829784 -0.3966387808 -3.979688644 2.231602557e-38
11.84259033 -0.2380139083 -3.979701996 2.231602557e-38
11.84476185 -0.0793402046 -3.979718208 2.231602557e-38
11.84275627 0.2380267233 -3.979758024 2.231602557e-38
11.83857536 0.396648556 -3.979781389 2.231602557e-38
11.83397388 0.5552972555 -3.980377674 2.231602557e-38
11.82880306 0.7139806747 -3.981500149 2.231602557e-38
11.8218956 0.8726605177 -3.982752323 2.231602557e-38
11.81289291 1.031287193 -3.984016895 2.231602557e-38
11.80181122 1.189833403 -3.985298872 2.231602557e-38
11.78865337 1.348267198 -3.986599922 2.231602557e-38
11.77344799 1.506574035 -3.987923861 2.231602557e-38
11.7561903 1.664724112 -3.989274502 2.231602557e-38
11.73689747 1.822701931 -3.990656614 2.231602557e-38
11.69006824 2.137615204 -3.992778301 2.231602557e-38
11.65675545 2.293316603 -3.991537094 2.231602557e-38
11.6213789 2.448514462 -3.990306854 2.231602557e-38
11.58980083 2.604488373 -3.991079092 2.231602557e-38
11.5571003 2.760286093 -3.992194176 2.231602557e-38
11.52149677 2.915480375 -3.993030548 2.231602557e-38
11.48314571 3.070029736 -3.993635178 2.231602557e-38
11.44180107 3.223821402 -3.993919849 2.231602557e-38
11.39686775 3.376603365 -3.993668079 2.231602557e-38
11.34989262 3.528755426 -3.99341464 2.231602557e-38
11.30087376 3.680255651 -3.993159294 2.231602557e-38
11.24983597 3.831072807 -3.992902756 2.231602557e-38
11.19677925 3.981176138 -3.992644548 2.231602557e-38
11.14171314 4.130552769 -3.992385149 2.231602557e-38
11.08465385 4.279162407 -3.992123842 2.231602557e-38
11.02560806 4.426986694 -3.99186182 2.231602557e-38
10.96458721 4.573992729 -3.991597891 2.231602557e-38
10.90160656 4.720149994 -3.991333008 2.231602557e-38
10.83667183 4.865446091 -3.991066694 2.231602557e-38
10.76979923 5.009850979 -3.990799427 2.231602557e-38
10.70099545 5.153329849 -3.990530968 2.231602557e-38
10.63028049 5.295868397 -3.990261078 2.231602557e-38
10.55766487 5.437430382 -3.989990473 2.231602557e-38
10.48316002 5.577998638 -3.989718914 2.231602557e-38
10.4067831 5.717548847 -3.989446402 2.231602557e-38
10.32854843 5.856052876 -3.989172935 2.231602557e-38
10.24846649 5.993478775 -3.988898516 2.231602557e-38
10.16655064 6.12981081 -3.988623619 2.231602557e-38
10.08282185 6.265023232 -3.988347769 2.231602557e-38
9.997293472 6.399091721 -3.988071203 2.231602557e-38
9.909981728 6.531993389 -3.987794161 2.231602557e-38
9.820900917 6.663705349 -3.987516403 2.231602557e-38
9.730070114 6.794198036 -3.987238169 2.231602557e-38
9.637505531 6.923455715 -3.986959457 2.231602557e-38
9.543221474 7.051446915 -3.986680269 2.231602557e-38
9.447238922 7.178164959 -3.986400604 2.231602557e-38
9.349570274 7.30356741 -3.986120939 2.231602557e-38
9.250236511 7.427639484 -3.985840559 2.231602557e-38
9.149256706 7.550367832 -3.985560179 2.231602557e-38
9.046652794 7.671714306 -3.98527956 2.231602557e-38
8.942434311 7.791670799 -3.984998703 2.231602557e-38
8.836627007 7.910213947 -3.984717846 2.231602557e-38
8.729249954 8.027318001 -3.984437227 2.231602557e-38
8.620318413 8.14296627 -3.984156132 2.231602557e-38
8.509856224 8.25714016 -3.983875275 2.231602557e-38
8.397885323 8.369807243 -3.983594894 2.231602557e-38
8.284422874 8.480960846 -3.983314514 2.231602557e-38
8.169486046 8.590581894 -3.983033895 2.231602557e-38
8.053102493 8.698640823 -3.98275423 2.231602557e-38
7.935290813 8.80512619 -3.982474327 2.231602557e-38
7.816071987 8.910014153 -3.982195139 2.231602557e-38
7.695468426 9.013298988 -3.981916189 2.231602557e-38
7.57349968 9.114941597 -3.981637716 2.231602557e-38
7.448103905 9.212357521 -3.980242729 2.231602557e-38
7.321380615 9.307954788 -3.978809357 2.231602557e-38
7.193582058 9.402005196 -3.977457523 2.231602557e-38
7.064585209 9.494298935 -3.976105452 2.231602557e-38
6.93503046 9.585708618 -3.975116491 2.231602557e-38
6.804350853 9.675424576 -3.974164724 2.231602557e-38
6.673489094 9.764777184 -3.973780394 2.231602557e-38
6.54151392 9.852458 -3.973439455 2.231602557e-38
6.408930302 9.939200401 -3.973436117 2.231602557e-38
6.275200844 10.02415657 -3.973432779 2.231602557e-38
6.140339851 10.10731792 -3.97342968 2.231602557e-38
6.004381657 10.18866539 -3.973427057 2.231602557e-38
5.867351055 10.26818466 -3.973424673 2.231602557e-38
5.729259014 10.34585762 -3.97342205 2.231602557e-38
5.590140343 10.42166996 -3.973419666 2.231602557e-38
5.450026512 10.49561787 -3.973417997 2.231602557e-38
5.308726311 10.56727123 -3.973252773 2.231602557e-38
5.166644096 10.63737297 -3.973236084 2.231602557e-38
5.023683548 10.70563602 -3.973236084 2.231602557e-38
4.87981081 10.77197456 -3.973236084 2.231602557e-38
4.735069275 10.83638 -3.973236084 2.231602557e-38
4.58947134 10.89884281 -3.973236084 2.231602557e-38
4.443052769 10.95934582 -3.973236084 2.231602557e-38
4.295837402 11.0178833 -3.973236084 2.231602557e-38
4.147847652 11.07444572 -3.973236084 2.231602557e-38
3.999118567 11.12901783 -3.973236084 2.231602557e-38
3.84967041 11.18159294 -3.973236084 2.231602557e-38
3.699527502 11.23216438 -3.973236084 2.231602557e-38
3.54872179 11.28071785 -3.973236084 2.231602557e-38
3.39727664 11.32725048 -3.973236084 2.231602557e-38
3.24522686 11.37174034 -3.973236084 2.231602557e-38
3.092593908 11.41419697 -3.973236084 2.231602557e-38
2.939401865 11.4546051 -3.973236084 2.231602557e-38
2.785683632 11.49295139 -3.973236084 2.231602557e-38
2.631468534 11.52924061 -3.973236084 2.231602557e-38
2.476779699 11.5634594 -3.973236084 2.231602557e-38
2.32164669 11.5956049 -3.973236084 2.231602557e-38
2.16609621 11.6256628 -3.973236084 2.231602557e-38
2.010158539 11.65363884 -3.973236084 2.231602557e-38
1.85386467 11.6795187 -3.973236084 2.231602557e-38
1.697235107 11.7033062 -3.973236084 2.231602557e-38
1.540296555 11.72499275 -3.973236084 2.231602557e-38
1.383082271 11.74457645 -3.973236084 2.231602557e-38
1.225622535 11.76205158 -3.973236084 2.231602557e-38
1.067937016 11.77741528 -3.973236084 2.231602557e-38
0.9100646973 11.79066658 -3.973236084 2.231602557e-38
0.752030015 11.80179882 -3.973236084 2.231602557e-38
0.59385252 11.81081486 -3.973236084 2.231602557e-38
0.4355810583 11.81771088 -3.973236084 2.231602557e-38
0.2772229016 11.82248592 -3.973236084 2.231602557e-38
0.1188208014 11.82513809 -3.973236084 2.231602557e-38
-0.03960937262 11.82567024 -3.973236084 2.231602557e-38
-0.1980358809 11.82407951 -3.973236084 2.231602557e-38
-0.3564099073 11.82036304 -3.973236084 2.231602557e-38
-0.5147326589 11.81452751 -3.973236084 2.231602557e-38
-0.6729589701 11.80657291 -3.973236084 2.231602557e-38
-0.8310644627 11.79649734 -3.973236084 2.231602557e-38
-0.9890319705 11.78430367 -3.973236084 2.231602557e-38
-1.146811485 11.76999855 -3.973236084 2.231602557e-38
-1.304389596 11.75357723 -3.973236084 2.231602557e-38
-1.461728454 11.73504829 -3.973236084 2.231602557e-38
-1.61880362 11.71441174 -3.973236084 2.231602557e-38
-1.775594473 11.69167423 -3.973236084 2.231602557e-38
-1.932058096 11.66684437 -3.973236084 2.231602557e-38
-2.088182211 11.6399107 -3.973236084 2.231602557e-38
-2.24392581 11.61089039 -3.973236084 2.231602557e-38
-2.399274826 11.5797863 -3.973236084 2.231602557e-38
-2.554183245 11.54660702 -3.973236084 2.231602557e-38
-2.708638906 11.51135349 -3.973236084 2.231602557e-38
-2.86261344 11.47403526 -3.973236084 2.231602557e-38
-3.016065598 11.43465519 -3.973236084 2.231602557e-38
-3.168987989 11.39322281 -3.973236084 2.231602557e-38
-3.321331739 11.3497467 -3.973236084 2.231602557e-38
-3.473080873 11.30423355 -3.973236084 2.231602557e-38
-3.624211311 11.25669193 -3.973236084 2.231602557e-38
-3.774683714 11.20713139 -3.973236084 2.231602557e-38
-3.924487114 11.15555477 -3.973236084 2.231602557e-38
-4.07357645 11.10197926 -3.973236084 2.231602557e-38
-4.221941948 11.04641342 -3.973236084 2.231602557e-38
-4.369548321 10.98886204 -3.973236084 2.231602557e-38
-4.516366005 10.92933941 -3.973236084 2.231602557e-38
-4.662381649 10.86785603 -3.973236084 2.231602557e-38
-4.807554722 10.80442238 -3.973236084 2.231602557e-38
-4.951862812 10.73904419 -3.973236084 2.231602557e-38
-5.095283031 10.67174339 -3.973236084 2.231602557e-38
-5.237790585 10.60252953 -3.973236084 2.231602557e-38
-5.379356384 10.53140736 -3.973236084 2.231602557e-38
-5.519957066 10.45839787 -3.973236084 2.231602557e-38
-5.659568787 10.38351059 -3.973236084 2.231602557e-38
-5.798163891 10.30675983 -3.973236084 2.231602557e-38
-5.935719013 10.22816181 -3.973236084 2.231602557e-38
-6.072205544 10.14772224 -3.973236084 2.231602557e-38
-6.2076087 10.06546688 -3.973236084 2.231602557e-38
-6.34189558 9.981405258 -3.973236084 2.231602557e-38
-6.475043774 9.895546913 -3.973236084 2.231602557e-38
-6.603428841 9.802577019 -3.971073627 2.231602557e-38
-6.729640961 9.706715584 -3.968408108 2.231602557e-38
-6.60400486 9.258113861 -3.820836067 2.231602557e-38
-6.72743988 9.168807983 -3.820836067 2.231602557e-38
-6.84966898 9.077859879 -3.820836067 2.231602557e-38
-6.970664024 8.985285759 -3.820836067 2.231602557e-38
-7.090415001 8.891096115 -3.820836067 2.231602557e-38
-7.208889008 8.795310974 -3.820836067 2.231602557e-38
-7.326067924 8.697945595 -3.820836067 2.231602557e-38
-7.441932201 8.599020004 -3.820836067 2.231602557e-38
-7.556468487 8.49855423 -3.820836067 2.231602557e-38
-7.669639587 8.396562576 -3.820836067 2.231602557e-38
-7.781431675 8.293060303 -3.820836067 2.231602557e-38
-7.89183712 8.188066483 -3.820836067 2.231602557e-38
-8.000819206 8.081609726 -3.820836067 2.231602557e-38
-8.10836792 7.97369957 -3.820836067 2.231602557e-38
-8.214460373 7.86436224 -3.820836067 2.231602557e-38
-8.319025993 7.753567219 -3.820811272 2.231602557e-38
-8.422094345 7.641366959 -3.820786238 2.231602557e-38
-8.52365303 7.527810097 -3.820761681 2.231602557e-38
-8.623678207 7.412895203 -3.820736885 2.231602557e-38
-8.72215271 7.296655655 -3.82071209 2.231602557e-38
-8.819065094 7.17911005 -3.820687771 2.231602557e-38
-8.914398193 7.060268879 -3.820662975 2.231602557e-38
-9.008119583 6.94017458 -3.820638418 2.231602557e-38
-9.100232124 6.818828106 -3.820613861 2.231602557e-38
-9.190704346 6.696261883 -3.820589542 2.231602557e-38
-9.279520988 6.572494984 -3.820564985 2.231602557e-38
-9.366685867 6.447548866 -3.820540667 2.231602557e-38
-9.452157021 6.321447849 -3.820516348 2.231602557e-38
-9.535933495 6.194211483 -3.820492268 2.231602557e-38
-9.618001938 6.0658741 -3.820467949 2.231602557e-38
-3.797291279 2.324356079 -1.495857358 2.295887404e-38
-3.800764799 2.257050753 -1.485180974 2.295887404e-38
-3.823163271 2.201614857 -1.482274413 2.295887404e-38
-3.881326914 2.166391611 -1.493437409 2.295887404e-38
-10.00212955 5.408316612 -3.820348501 2.231602557e-38
-10.07362938 5.273808479 -3.820324659 2.231602557e-38
-10.1433115 5.138349533 -3.820301056 2.231602557e-38
-10.2111721 5.00197506 -3.820277691 2.231602557e-38
-10.27720547 4.864700794 -3.820254326 2.231602557e-38
-10.3413868 4.726558685 -3.820231199 2.231602557e-38
-10.40372181 4.587568283 -3.820208073 2.231602557e-38
-10.46417809 4.447753906 -3.820185184 2.231602557e-38
-10.52275944 4.30714941 -3.820162296 2.231602557e-38
-10.57945442 4.165765285 -3.820139647 2.231602557e-38
-10.63424683 4.023643494 -3.820116997 2.231602557e-38
-10.68713856 3.880797148 -3.820094585 2.231602557e-38
-10.73810196 3.73725462 -3.820072174 2.231602557e-38
-10.7871418 3.593039513 -3.82005024 2.231602557e-38
-10.83424664 3.448187113 -3.820028305 2.231602557e-38
-10.87940502 3.302720785 -3.820006371 2.231602557e-38
-10.92261982 3.15666008 -3.819984674 2.231602557e-38
-10.96385956 3.010028124 -3.819963217 2.231602557e-38
-11.00314045 2.862861156 -3.819941998 2.231602557e-38
-11.04044533 2.715180635 -3.819920778 2.231602557e-38
-11.07576561 2.567023754 -3.819899797 2.231602557e-38
-11.10910225 2.418400764 -3.819879055 2.231602557e-38
-11.14043999 2.269348145 -3.819858313 2.231602557e-38
-2.968411684 0.5633667111 -1.015135765 2.314254503e-38
-2.954195499 0.519769907 -1.007802725 2.314254503e-38
-2.957864285 0.4796569645 -1.006772161 2.314254503e-38
-2.979272366 0.442250967 -1.011950612 2.314254503e-38
-3.039503098 0.4096557498 -1.030452251 2.314254503e-38
-11.28633499 1.367459655 -3.819738626 2.231602557e-38
-11.30358696 1.216133952 -3.819719553 2.231602557e-38
-11.31880474 1.064589858 -3.819700241 2.231602557e-38
-9.196831703 0.7408471704 -3.099979162 2.249969656e-38
-9.133140564 0.6126916409 -3.07546711 2.249969656e-38
-9.129448891 0.4896850586 -3.071738243 2.249969656e-38
-9.2081213 0.3702734411 -3.096263885 2.249969656e-38
-11.3644104 0.3045642078 -3.81960845 2.231602557e-38
-11.36741352 0.1522998065 -3.819590569 2.231602557e-38
-11.09294033 2.441406195e-06 -3.81960535 2.231602557e-38
-11.0918951 -0.1486096084 -3.819588423 2.231602557e-38
-11.08886051 -0.2971850634 -3.819571733 2.231602557e-38
-11.08383751 -0.4457055628 -3.819555521 2.231602557e-38
-11.0768261 -0.5941479206 -3.819539309 2.231602557e-38
-11.06782532 -0.7424877882 -3.819523573 2.231602557e-38
-11.05684185 -0.8906909227 -3.819508076 2.231602557e-38
-11.04387283 -1.038732886 -3.81949234 2.231602557e-38
-11.02892208 -1.186586857 -3.819477558 2.231602557e-38
-11.01199341 -1.334223628 -3.819462538 2.231602557e-38
-10.99308777 -1.481621027 -3.819447756 2.231602557e-38
-10.97221088 -1.628749967 -3.819433451 2.231602557e-38
-10.94936752 -1.77558589 -3.819419384 2.231602557e-38
-10.92455864 -1.922101974 -3.819405794 2.231602557e-38
-10.89778996 -2.068275213 -3.819392204 2.231602557e-38
-10.86906624 -2.214069843 -3.819378853 2.231602557e-38
-10.83839417 -2.359472513 -3.81936574 2.231602557e-38
-10.80577469 -2.504448175 -3.819352865 2.231602557e-38
-10.77121544 -2.648979425 -3.819338799 2.231602557e-38
-10.73472023 -2.79302597 -3.819325209 2.231602557e-38
-10.69630814 -2.936578274 -3.819311857 2.231602557e-38
-10.65596676 -3.079594612 -3.819298506 2.231602557e-38
-10.61371422 -3.222061634 -3.819285393 2.231602557e-38
-10.56956196 -3.36394763 -3.819272995 2.231602557e-38
-10.47576141 -3.645951986 -3.819313765 2.231602557e-38
-10.42613602 -3.786022902 -3.819371939 2.231602557e-38
-10.37463951 -3.925417423 -3.819430351 2.231602557e-38
-10.32128239 -4.064113617 -3.819489956 2.231602557e-38
-10.26607323 -4.202082634 -3.819549799 2.231602557e-38
-10.2113266 -4.340289116 -3.820475101 2.231602557e-38
-10.15565681 -4.478186131 -3.821750164 2.231602557e-38
-10.0963583 -4.614570141 -3.822357893 2.231602557e-38
-10.03359318 -4.749394417 -3.822343588 2.231602557e-38
-9.969035149 -4.883366585 -3.822329521 2.231602557e-38
-9.902684212 -5.01646328 -3.822315931 2.231602557e-38
-9.834554672 -5.148651123 -3.822302818 2.231602557e-38
-9.764669418 -5.279921532 -3.822289944 2.231602557e-38
-9.69302845 -5.410243988 -3.822277784 2.231602557e-38
-9.619650841 -5.53959465 -3.822266102 2.231602557e-38
-9.55022049 -5.671323299 -3.824527264 2.231602557e-38
-9.478214264 -5.801708698 -3.826476097 2.231602557e-38
-9.404886246 -5.931540489 -3.828527212 2.231602557e-38
-9.332290649 -6.061945438 -3.83176589 2.231602557e-38
-9.253417015 -6.188535213 -3.833097219 2.231602557e-38
-9.173804283 -6.314798355 -3.83480835 2.231602557e-38
-9.096491814 -6.442862511 -3.838235378 2.231602557e-38
-9.016798019 -6.56956768 -3.841388226 2.231602557e-38
-8.933746338 -6.694087982 -3.84388423 2.231602557e-38
-8.844808578 -6.814352989 -3.844553709 2.231602557e-38
-8.758950233 -6.937169075 -3.847292423 2.231602557e-38
-8.665932655 -7.05445528 -3.847599983 2.231602557e-38
-8.570648193 -7.169915676 -3.847599983 2.231602557e-38
-8.473825455 -7.284091473 -3.847599983 2.231602557e-38
-8.375487328 -7.396953106 -3.847599983 2.231602557e-38
-8.275636673 -7.508495808 -3.847599983 2.231602557e-38
-8.17430687 -7.618686199 -3.847599983 2.231602557e-38
-8.071511269 -7.727513313 -3.847599983 2.231602557e-38
-7.967261791 -7.83494997 -3.847599983 2.231602557e-38
-7.861588955 -7.940973759 -3.847599983 2.231602557e-38
-7.754500389 -8.045583725 -3.847599983 2.231602557e-38
-7.646020412 -8.148744583 -3.847599983 2.231602557e-38
-7.536166668 -8.250448227 -3.847599983 2.231602557e-38
-7.424962997 -8.350665092 -3.847599983 2.231602557e-38
-7.312431335 -8.449383736 -3.847599983 2.231602557e-38
-7.471802711 -8.870973587 -3.993637085 2.231602557e-38
-7.357141972 -8.976195335 -3.996272802 2.231602557e-38
-7.241006851 -9.079938889 -3.998909235 2.231602557e-38
-7.120653152 -9.178625107 -4 2.231602557e-38
-6.997059345 -9.273200035 -4 2.231602557e-38
-6.872198105 -9.366104126 -4 2.231602557e-38
-6.746105671 -9.45732975 -4 2.231602557e-38
-6.618805885 -9.546857834 -4 2.231602557e-38
-6.490315914 -9.634669304 -4 2.231602557e-38
-6.360661507 -9.720751762 -4 2.231602557e-38
-6.229866982 -9.805093765 -4 2.231602557e-38
-6.097956181 -9.88766861 -4 2.231602557e-38
-5.964943886 -9.968473434 -4 2.231602557e-38
-5.830866337 -10.04749107 -4 2.231602557e-38
-5.6957407 -10.12470341 -4 2.231602557e-38
-5.559593201 -10.20009708 -4 2.231602557e-38
-5.422450542 -10.27365971 -4 2.231602557e-38
-5.284332275 -10.34538174 -4 2.231602557e-38
-5.145277977 -10.41523552 -4 2.231602557e-38
-5.005284309 -10.48322773 -4 2.231602557e-38
-4.864400387 -10.54934025 -4 2.231602557e-38
-4.722630978 -10.61356258 -4 2.231602557e-38
-4.580018044 -10.67588615 -4 2.231602557e-38
-4.436596394 -10.73626804 -4 2.231602557e-38
-4.292363644 -10.79475212 -4 2.231602557e-38
-4.147367954 -10.85128117 -4 2.231602557e-38
-4.001625061 -10.90587234 -4 2.231602557e-38
-3.855169535 -10.95849705 -4 2.231602557e-38
-3.708009481 -11.00916862 -4 2.231602557e-38
-3.560195208 -11.05785179 -4 2.231602557e-38
-3.411740541 -11.10454845 -4 2.231602557e-38
-3.262665272 -11.14926243 -4 2.231602557e-38
-3.113003969 -11.19197464 -4 2.231602557e-38
-2.96278429 -11.23267937 -4 2.231602557e-38
-2.812045336 -11.27135468 -4 2.231602557e-38
-2.66079092 -11.30801773 -4 2.231602557e-38
-2.509066105 -11.34264946 -4 2.231602557e-38
-2.356888294 -11.37524414 -4 2.231602557e-38
-2.204285145 -11.40579605 -4 2.231602557e-38
-2.051290274 -11.43430424 -4 2.231602557e-38
-1.897930861 -11.46075439 -4 2.231602557e-38
-1.744221807 -11.48515224 -4 2.231602557e-38
-1.590207458 -11.5074892 -4 2.231602557e-38
-1.435907602 -11.52775574 -4 2.231602557e-38
-1.281340957 -11.54595947 -4 2.231602557e-38
-1.126551509 -11.56208992 -4 2.231602557e-38
-0.9715563655 -11.57614517 -4 2.231602557e-38
-0.8163878918 -11.58812237 -4 2.231602557e-38
-0.6610680819 -11.59801769 -4 2.231602557e-38
-0.5056347251 -11.60583496 -4 2.231602557e-38
-0.3501135111 -11.6115675 -4 2.231602557e-38
-0.1945349127 -11.61521435 -4 2.231602557e-38
-0.03891479224 -11.61677837 -4 2.231602557e-38
0.1167272925 -11.61625671 -4 2.231602557e-38
0.2723303139 -11.61365223 -4 2.231602557e-38
0.427885741 -11.60895824 -4 2.231602557e-38
0.5833654404 -11.60218811 -4 2.231602557e-38
0.7387426496 -11.59332943 -4 2.231602557e-38
0.893977046 -11.58241177 -4 2.231602557e-38
1.049079537 -11.56937695 -4 2.231602557e-38
1.203972101 -11.5542841 -4 2.231602557e-38
1.358653545 -11.53711891 -4 2.231602557e-38
1.187160015 -9.036857605 -3.138374567 2.249969656e-38
1.289066076 -8.888760567 -3.092662334 2.249969656e-38
1.396651626 -8.79902935 -3.067677498 2.259153205e-38
1.507140517 -8.737445831 -3.05297327 2.259153205e-38
1.61862123 -8.687321663 -3.042763233 2.259153205e-38
1.64651978 -8.223625183 -2.887819052 2.259153205e-38
1.700975299 -7.941412926 -2.796468496 2.259153205e-38
1.764794827 -7.732074261 -2.730834246 2.268336755e-38
1.829937696 -7.549803257 -2.674877882 2.268336755e-38
1.896093726 -7.388913631 -2.626640558 2.268336755e-38
1.977935791 -7.300196171 -2.604288816 2.268336755e-38
2.064641714 -7.234794617 -2.590592623 2.268336755e-38
2.150087833 -7.168842793 -2.577060461 2.268336755e-38
2.234974861 -7.104556561 -2.564486027 2.268336755e-38
2.318966627 -7.04062748 -2.552394867 2.268336755e-38
2.407334566 -6.992236137 -2.546317339 2.268336755e-38
2.497943163 -6.95143795 -2.543417931 2.268336755e-38
2.588135242 -6.910125732 -2.540761471 2.268336755e-38
2.677780628 -6.86792326 -2.538208008 2.268336755e-38
2.769485474 -6.831277847 -2.538149834 2.268336755e-38
2.865148306 -6.803995609 -2.542048454 2.268336755e-38
2.968504667 -6.793531418 -2.552767754 2.268336755e-38
3.072092295 -6.781508446 -2.563486338 2.268336755e-38
3.175916672 -6.767977715 -2.574225426 2.268336755e-38
